ply
format ascii 1.0
element vertex 1118
property float x
property float y
property float z
property float nx
property float ny
property float nz
end_header
113.888565 235.26979 216.78787 172.05083 0 0
119.38319 229.27567 210.79375 172.05083 0 0
104.39785 244.261 216.78787 172.05083 0 0
101.90029 251.25415 222.2825 172.05083 0 0
98.40372 249.75562 212.7918 172.05083 0 0
101.90029 242.26295 206.79765 172.05083 0 0
108.89345 239.26588 216.78787 172.05083 0 0
111.39101 234.27077 208.29619 172.05083 0 0
124.87781 222.78201 201.80254 177.99022 0 0
117.38514 229.77518 208.7957 142.92863 0 0
121.880745 225.27957 203.30107 142.92863 0 0
112.39003 231.27371 200.80351 142.92863 0 0
116.88563 226.7781 194.80939 142.92863 0 0
98.40372 243.26198 195.3089 142.92863 0 0
99.40274 244.76051 204.3001 142.92863 0 0
104.39785 239.26588 205.79863 142.92863 0 0
105.39687 235.7693 195.3089 142.92863 0 0
115.88661 18.481916 209.29521 154.04105 0 0
117.38514 26.474096 209.79472 154.04105 0 0
118.883675 12.487782 207.79668 154.04105 0 0
127.37537 1.4985337 197.80646 154.04105 0 0
122.38026 5.4946237 206.29814 154.04105 0 0
112.88954 8.491692 206.79765 154.04105 0 0
113.38905 1.4985337 194.30988 154.04105 0 0
105.39687 23.97654 210.29424 154.04105 0 0
97.904205 19.480938 209.79472 154.04105 0 0
103.39883 12.987292 208.7957 154.04105 0 0
106.89541 4.495601 202.80156 154.04105 0 0
99.40274 8.491692 206.29814 154.04105 0 0
101.90029 1.998045 196.80743 154.04105 0 0
125.37732 93.90811 192.81134 123.9609 0 0
124.378296 109.39296 193.81036 123.9609 0 0
113.38905 47.95308 191.81232 136.98924 0 0
121.38123 46.954056 197.80646 136.98924 0 0
119.8827 37.962852 203.30107 136.98924 0 0
112.88954 41.958946 197.80646 136.98924 0 0
116.386116 31.96872 207.29716 136.98924 0 0
104.89736 38.462364 201.80254 136.98924 0 0
103.89834 43.457478 195.3089 136.98924 0 0
100.90127 43.457478 193.81036 127.02639 0 0
100.40176 36.963833 203.30107 127.02639 0 0
122.38026 23.97654 208.29619 136.98924 0 0
107.894424 28.971653 209.79472 136.98924 0 0
126.875854 24.975563 207.79668 128.94232 0 0
122.87977 16.983383 206.29814 128.94232 0 0
124.378296 7.4926686 207.29716 128.94232 0 0
106.89541 29.471163 210.29424 127.02639 0 0
96.40567 18.981426 209.29521 127.02639 0 0
95.90616 29.970675 207.79668 127.02639 0 0
94.40762 250.25513 203.30107 172.05083 0 0
92.90909 251.25415 200.80351 142.92863 0 0
93.4086 251.75366 199.305 141.01271 0 0
88.913 10.489737 202.80156 154.04105 0 0
93.4086 14.985337 207.29716 154.04105 0 0
91.910065 3.99609 197.30695 154.04105 0 0
83.41838 33.966766 195.80841 127.02639 0 0
94.907135 39.461388 196.80743 127.02639 0 0
88.913 30.470186 203.80058 127.02639 0 0
86.41544 16.983383 204.7996 127.02639 0 0
79.9218 24.476051 198.30597 127.02639 0 0
83.41838 8.491692 197.30695 127.02639 0 0
78.922775 13.986315 194.30988 127.02639 0 0
75.925705 22.977516 193.31085 127.02639 0 0
100.40176 83.41838 184.31964 153.08308 0 0
104.89736 71.92962 185.31866 153.08308 0 0
81.919846 103.39883 182.82112 153.08308 0 0
91.910065 96.90518 183.32063 153.08308 0 0
63.93744 100.40176 179.82405 153.08308 0 0
68.93255 101.40078 181.32259 153.08308 0 0
84.4174 89.912025 184.81915 153.08308 0 0
93.4086 89.912025 184.31964 153.08308 0 0
92.40958 78.922775 185.81818 153.08308 0 0
91.41056 69.93157 186.8172 153.08308 0 0
80.92082 76.42522 186.31769 153.08308 0 0
82.41936 64.93646 186.8172 153.08308 0 0
71.92962 80.92082 183.82013 153.08308 0 0
74.92669 93.90811 183.82013 153.08308 0 0
66.93451 90.41154 181.8221 153.08308 0 0
65.935486 73.927666 181.8221 153.08308 0 0
74.42718 68.43304 184.81915 153.08308 0 0
96.90518 60.940372 187.31671 153.08308 0 0
124.378296 1.4985337 187.31671 154.04105 0 0
113.888565 1.4985337 185.81818 154.04105 0 0
117.88465 1.4985337 178.82503 154.04105 0 0
114.38808 1.4985337 168.8348 154.04105 0 0
124.378296 1.4985337 164.83871 154.04105 0 0
102.899315 1.4985337 186.8172 154.04105 0 0
106.89541 1.4985337 177.32649 154.04105 0 0
102.899315 1.4985337 166.83676 154.04105 0 0
87.41447 58.442814 187.81622 153.08308 0 0
80.42131 57.443794 185.81818 153.08308 0 0
66.93451 61.939392 181.32259 153.08308 0 0
74.42718 56.944283 183.82013 153.08308 0 0
94.907135 1.4985337 176.82698 154.04105 0 0
91.910065 1.998045 188.81525 154.04105 0 0
84.4174 2.4975562 180.82307 154.04105 0 0
92.90909 1.4985337 168.8348 154.04105 0 0
82.41936 2.4975562 171.33235 154.04105 0 0
78.42326 5.4946237 188.81525 154.04105 0 0
57.943306 98.90323 177.32649 153.08308 0 0
60.44086 91.41056 179.32454 153.08308 0 0
56.944283 81.919846 178.32552 153.08308 0 0
62.438904 82.91887 180.82307 153.08308 0 0
52.44868 90.91105 175.32845 153.08308 0 0
48.45259 79.9218 172.83089 153.08308 0 0
51.94917 81.919846 175.32845 153.08308 0 0
60.44086 66.93451 178.82503 153.08308 0 0
59.441837 74.92669 178.82503 153.08308 0 0
53.947212 74.42718 175.82796 153.08308 0 0
117.38514 224.78006 183.82013 142.92863 0 0
116.88563 224.78006 163.34018 142.92863 0 0
112.88954 227.77713 169.3343 142.92863 0 0
99.90225 239.7654 187.31671 142.92863 0 0
104.89736 234.77028 185.31866 142.92863 0 0
108.89345 230.7742 176.32747 142.92863 0 0
111.39101 229.77518 188.81525 142.92863 0 0
100.40176 238.26686 176.82698 142.92863 0 0
102.899315 235.26979 166.83676 142.92863 0 0
122.87977 221.78299 189.81427 142.92863 0 0
122.38026 221.28348 161.34213 142.92863 0 0
119.38319 222.78201 173.3304 142.92863 0 0
91.41056 250.25513 189.31476 142.92863 0 0
88.913 253.75171 191.3128 141.01271 0 0
95.40665 243.76149 181.8221 142.92863 0 0
86.41544 254.75073 179.32454 142.92863 0 0
86.914955 254.75073 182.32161 141.01271 0 0
90.41154 248.25708 173.3304 142.92863 0 0
92.90909 245.26003 162.84067 142.92863 0 0
95.40665 242.76247 171.83186 142.92863 0 0
91.910065 246.25905 159.8436 131.04985 0 0
87.41447 251.75366 167.33627 131.04985 0 0
122.87977 221.28348 160.34311 100.01173 0 0
126.37634 156.84653 163.34018 135.07332 0 0
123.878784 152.85043 168.33528 135.07332 0 0
123.878784 147.35582 175.32845 135.07332 0 0
115.88661 146.85631 169.83382 135.07332 0 0
115.88661 151.85141 164.3392 135.07332 0 0
121.38123 140.86217 179.32454 135.07332 0 0
124.378296 132.87 186.8172 135.07332 0 0
116.88563 133.3695 180.32356 135.07332 0 0
115.88661 141.36168 174.82893 135.07332 0 0
107.39492 150.8524 162.34116 135.07332 0 0
99.90225 144.85826 164.83871 135.07332 0 0
109.39296 129.37341 177.32649 135.07332 0 0
107.894424 143.35973 169.3343 135.07332 0 0
109.89247 137.36559 173.82991 135.07332 0 0
99.40274 128.8739 173.82991 135.07332 0 0
70.43108 146.3568 160.84262 127.98436 0 0
94.907135 136.36656 169.83382 135.07332 0 0
97.40469 131.37146 172.33138 122.04496 0 0
88.913 136.36656 169.83382 122.04496 0 0
91.41056 141.36168 166.83676 122.04496 0 0
84.91691 127.87488 174.32942 122.04496 0 0
71.43011 146.3568 160.84262 122.04496 0 0
77.92375 142.3607 164.83871 122.04496 0 0
76.92473 136.36656 168.8348 122.04496 0 0
75.4262 130.37244 172.33138 122.04496 0 0
66.93451 139.36363 165.33823 122.04496 0 0
113.38905 228.77615 154.34897 142.92863 0 0
106.89541 233.27174 156.34702 142.92863 0 0
99.90225 239.26588 158.34506 142.92863 0 0
87.91398 251.75366 154.34897 131.04985 0 0
86.914955 253.75171 143.85924 131.04985 0 0
120.88172 224.78006 144.85826 100.01173 0 0
115.88661 227.77713 147.35582 100.01173 0 0
117.88465 224.78006 155.34799 100.01173 0 0
117.88465 229.27567 132.37048 100.01173 0 0
122.87977 224.78006 135.86707 100.01173 0 0
124.87781 221.28348 149.85338 100.01173 0 0
114.88759 156.34702 156.34702 135.07332 0 0
66.435 152.35092 154.34897 127.98436 0 0
66.93451 158.34506 147.85533 127.98436 0 0
126.37634 162.84067 149.35387 104.03519 0 0
113.38905 163.83969 146.3568 104.03519 0 0
117.88465 161.34213 150.8524 104.03519 0 0
121.880745 171.33235 128.37439 104.03519 0 0
119.8827 167.83578 136.86607 104.03519 0 0
120.88172 164.83871 143.35973 104.03519 0 0
114.38808 171.83186 129.37341 104.03519 0 0
110.891495 168.8348 136.36656 104.03519 0 0
115.88661 158.34506 155.34799 104.03519 0 0
63.93744 169.3343 128.8739 109.97458 0 0
62.438904 166.83676 133.86902 127.98436 0 0
62.938416 161.84164 141.36168 127.98436 0 0
53.447704 163.34018 132.37048 127.98436 0 0
61.939392 141.36168 161.84164 127.98436 0 0
49.451614 128.8739 163.83969 127.98436 0 0
54.946236 134.86804 162.84067 127.98436 0 0
57.443794 153.34995 148.35484 127.98436 0 0
59.441837 147.85533 155.34799 127.98436 0 0
52.44868 153.34995 144.85826 127.98436 0 0
49.951126 147.35582 149.35387 127.98436 0 0
53.947212 157.84555 140.36266 127.98436 0 0
53.447704 141.86119 156.84653 127.98436 0 0
47.453568 155.8475 136.86607 127.98436 0 0
45.955032 159.34409 129.87292 127.98436 0 0
46.454544 150.35289 143.35973 127.98436 0 0
42.458454 151.35191 137.36559 127.98436 0 0
38.961876 153.34995 128.8739 127.98436 0 0
34.466274 145.85728 132.87 127.98436 0 0
36.963833 144.35875 138.86412 127.98436 0 0
45.955032 136.86607 155.8475 127.98436 0 0
44.4565 141.86119 149.35387 127.98436 0 0
38.961876 141.36168 144.35875 127.98436 0 0
35.96481 135.36755 146.3568 127.98436 0 0
37.962852 129.37341 152.85043 127.98436 0 0
32.967743 138.86412 138.86412 127.98436 0 0
31.469208 128.8739 144.85826 127.98436 0 0
54.946236 164.3392 132.37048 109.97458 0 0
47.453568 160.34311 129.87292 109.97458 0 0
61.939392 127.87488 170.33333 122.04496 0 0
61.439884 133.3695 166.83676 122.04496 0 0
53.947212 131.87097 164.3392 122.04496 0 0
115.88661 124.87781 183.32063 135.07332 0 0
122.87977 125.87683 188.31573 135.07332 0 0
121.38123 118.883675 189.81427 123.9609 0 0
114.38808 114.38808 184.81915 123.9609 0 0
116.386116 123.878784 184.31964 123.9609 0 0
119.8827 97.40469 188.31573 123.9609 0 0
114.38808 103.89834 183.82013 123.9609 0 0
118.883675 106.3959 188.81525 123.9609 0 0
110.39198 119.8827 180.82307 123.9609 0 0
102.3998 115.88661 179.32454 123.9609 0 0
100.90127 105.896385 182.32161 123.9609 0 0
109.89247 110.39198 179.82405 123.9609 0 0
122.87977 76.92473 185.31866 136.98924 0 0
116.386116 68.93255 184.81915 136.98924 0 0
107.894424 74.42718 185.31866 136.98924 0 0
121.880745 88.41349 187.81622 123.9609 0 0
117.88465 86.41544 181.8221 123.9609 0 0
126.875854 78.922775 191.3128 123.9609 0 0
122.87977 78.42326 185.81818 123.9609 0 0
113.888565 75.925705 184.81915 123.9609 0 0
109.39296 84.91691 184.81915 123.9609 0 0
111.39101 94.40762 181.8221 123.9609 0 0
102.3998 94.907135 183.82013 123.9609 0 0
99.90225 84.4174 184.31964 123.9609 0 0
105.39687 75.925705 184.81915 123.9609 0 0
94.40762 113.888565 179.82405 123.9609 0 0
90.41154 98.40372 182.82112 123.9609 0 0
99.90225 124.87781 176.32747 122.04496 0 0
91.41056 118.883675 178.32552 122.04496 0 0
90.41154 110.39198 180.32356 122.04496 0 0
83.91789 103.39883 182.82112 122.04496 0 0
80.92082 110.39198 180.82307 122.04496 0 0
79.42229 118.38416 178.32552 122.04496 0 0
66.93451 116.386116 176.82698 122.04496 0 0
72.42913 111.39101 179.82405 122.04496 0 0
73.428154 102.899315 181.8221 122.04496 0 0
65.935486 104.89736 179.82405 122.04496 0 0
123.37928 60.940372 182.82112 136.98924 0 0
122.38026 53.447704 191.3128 136.98924 0 0
109.89247 60.940372 186.31769 136.98924 0 0
96.90518 58.942326 187.31671 136.98924 0 0
100.90127 49.951126 189.81427 136.98924 0 0
95.90616 54.946236 188.31573 127.02639 0 0
84.91691 58.942326 186.8172 127.02639 0 0
86.914955 48.952103 187.81622 127.02639 0 0
87.91398 40.46041 191.3128 127.02639 0 0
93.90811 46.454544 190.31378 127.02639 0 0
80.42131 43.457478 186.31769 127.02639 0 0
77.92375 54.946236 185.31866 127.02639 0 0
71.92962 49.451614 181.8221 127.02639 0 0
72.42913 38.462364 181.8221 127.02639 0 0
76.42522 31.96872 188.81525 127.02639 0 0
68.43304 32.967743 177.32649 127.02639 0 0
80.42131 6.9931574 190.31378 127.02639 0 0
74.42718 16.483871 188.31573 127.02639 0 0
70.930595 23.477028 181.8221 127.02639 0 0
72.92864 14.4858265 181.32259 127.02639 0 0
74.42718 9.990225 176.32747 127.02639 0 0
79.42229 4.9951124 181.32259 127.02639 0 0
63.93744 59.441837 179.32454 118.0215 0 0
71.43011 54.946236 182.32161 118.0215 0 0
67.43402 34.965786 176.32747 118.0215 0 0
69.43206 45.455524 180.32356 118.0215 0 0
104.89736 123.878784 175.32845 123.9609 0 0
71.92962 123.37928 175.32845 122.04496 0 0
66.93451 125.87683 172.83089 122.04496 0 0
126.875854 1.998045 161.84164 140.05473 0 0
65.935486 24.975563 175.32845 127.02639 0 0
68.93255 16.483871 170.83284 127.02639 0 0
65.435974 22.977516 170.83284 118.0215 0 0
82.91887 2.4975562 164.83871 100.969696 0 0
64.43695 17.482893 163.34018 100.969696 0 0
72.42913 8.991202 164.83871 100.969696 0 0
78.42326 4.495601 173.3304 100.969696 0 0
70.43108 14.4858265 171.83186 100.969696 0 0
49.451614 108.89345 170.83284 133.92375 0 0
54.946236 100.90127 175.82796 133.92375 0 0
41.459435 122.87977 159.8436 133.92375 0 0
46.954056 119.8827 165.83774 133.92375 0 0
38.462364 112.88954 160.84262 133.92375 0 0
42.957966 124.87781 160.34311 127.98436 0 0
46.454544 95.90616 171.33235 133.92375 0 0
43.457478 108.89345 166.33725 133.92375 0 0
38.961876 99.40274 163.83969 133.92375 0 0
51.94917 91.41056 175.32845 133.92375 0 0
40.959923 86.41544 166.33725 133.92375 0 0
40.959923 73.927666 164.83871 133.92375 0 0
46.954056 79.42229 171.83186 133.92375 0 0
36.963833 79.42229 161.84164 133.92375 0 0
60.44086 120.88172 172.83089 122.04496 0 0
58.942326 112.88954 174.82893 122.04496 0 0
52.44868 123.37928 167.83578 122.04496 0 0
49.951126 114.38808 169.83382 122.04496 0 0
63.437927 109.89247 177.826 122.04496 0 0
59.441837 100.40176 177.826 122.04496 0 0
53.447704 105.896385 173.82991 122.04496 0 0
46.454544 123.878784 163.83969 122.04496 0 0
59.441837 66.435 177.826 118.0215 0 0
50.450634 67.93353 171.83186 118.0215 0 0
46.954056 77.42424 171.33235 118.0215 0 0
42.458454 74.92669 166.83676 118.0215 0 0
41.958946 66.435 163.83969 118.0215 0 0
62.938416 49.451614 176.32747 118.0215 0 0
52.948193 50.450634 168.33528 118.0215 0 0
55.445747 58.942326 173.3304 118.0215 0 0
60.44086 42.957966 171.33235 118.0215 0 0
57.443794 37.962852 165.83774 118.0215 0 0
62.438904 33.467255 169.83382 118.0215 0 0
50.950146 44.4565 162.34116 118.0215 0 0
46.954056 59.441837 165.83774 118.0215 0 0
62.938416 23.477028 166.33725 100.969696 0 0
61.939392 24.975563 165.33823 118.0215 0 0
84.4174 1.998045 153.84946 100.969696 0 0
83.91789 1.998045 142.3607 100.969696 0 0
73.428154 4.9951124 154.84848 100.969696 0 0
71.92962 3.99609 144.35875 100.969696 0 0
78.42326 2.4975562 148.35484 100.969696 0 0
64.43695 12.487782 155.34799 100.969696 0 0
77.92375 1.998045 137.8651 100.969696 0 0
69.93157 2.9970675 128.37439 100.969696 0 0
66.435 6.493646 140.36266 100.969696 0 0
35.96481 124.378296 153.34995 133.92375 0 0
33.966766 112.39003 155.8475 133.92375 0 0
33.467255 124.378296 150.35289 127.98436 0 0
34.466274 100.40176 158.84457 133.92375 0 0
33.966766 86.914955 159.34409 133.92375 0 0
35.96481 69.93157 158.34506 133.92375 0 0
30.969696 115.88661 150.35289 133.92375 0 0
31.469208 104.39785 154.34897 133.92375 0 0
25.974585 110.891495 143.85924 133.92375 0 0
27.473118 101.90029 148.35484 133.92375 0 0
24.476051 97.904205 142.3607 133.92375 0 0
22.478006 104.89736 136.36656 133.92375 0 0
20.479961 96.40567 131.87097 133.92375 0 0
31.469208 94.40762 155.8475 133.92375 0 0
27.97263 89.912025 149.85338 133.92375 0 0
30.969696 82.91887 153.34995 133.92375 0 0
24.975563 88.41349 142.3607 133.92375 0 0
21.478983 85.91593 128.37439 133.92375 0 0
23.477028 81.420334 137.36559 133.92375 0 0
29.471163 74.92669 148.85435 133.92375 0 0
33.966766 66.93451 153.34995 118.0215 0 0
37.962852 68.43304 159.34409 118.0215 0 0
33.467255 68.43304 153.34995 99.053764 0 0
23.477028 80.92082 136.86607 99.053764 0 0
20.979473 85.91593 128.8739 99.053764 0 0
28.971653 72.92864 147.85533 99.053764 0 0
26.474096 75.925705 142.3607 99.053764 0 0
29.471163 63.93744 141.86119 99.053764 0 0
26.474096 67.43402 135.86707 99.053764 0 0
48.45259 41.459435 156.34702 118.0215 0 0
50.950146 32.46823 150.8524 118.0215 0 0
52.44868 35.465298 156.34702 118.0215 0 0
41.459435 58.442814 158.84457 118.0215 0 0
44.956013 49.951126 158.84457 118.0215 0 0
41.459435 51.94917 154.34897 118.0215 0 0
36.46432 59.441837 151.85141 118.0215 0 0
46.954056 38.961876 150.8524 118.0215 0 0
40.959923 46.954056 149.35387 118.0215 0 0
44.956013 36.46432 143.35973 118.0215 0 0
33.966766 60.940372 149.35387 99.053764 0 0
36.46432 53.447704 147.85533 99.053764 0 0
35.96481 47.95308 137.36559 99.053764 0 0
32.46823 57.443794 140.86217 99.053764 0 0
40.46041 45.455524 146.3568 99.053764 0 0
45.455524 33.467255 141.36168 100.969696 0 0
43.457478 36.963833 140.86217 99.053764 0 0
39.461388 39.461388 131.37146 99.053764 0 0
57.943306 27.97263 158.34506 118.0215 0 0
58.942326 26.474096 159.34409 100.969696 0 0
57.443794 20.479961 149.85338 100.969696 0 0
53.947212 29.970675 153.34995 100.969696 0 0
49.951126 26.474096 140.36266 100.969696 0 0
55.445747 17.982405 139.36363 100.969696 0 0
51.449657 18.981426 130.37244 100.969696 0 0
60.44086 15.484848 149.35387 100.969696 0 0
58.442814 13.486803 137.8651 100.969696 0 0
62.938416 10.989247 143.35973 100.969696 0 0
60.940372 7.4926686 128.8739 100.969696 0 0
45.455524 28.971653 131.37146 99.053764 0 0
29.471163 56.944283 128.37439 99.053764 0 0
100.90127 148.35484 162.84067 92.922775 0 0
87.91398 148.35484 161.34213 92.922775 0 0
93.4086 142.3607 165.83774 92.922775 0 0
75.4262 146.3568 161.84164 92.922775 0 0
118.38416 1.4985337 164.3392 76.06256 0 0
125.37732 2.4975562 159.8436 76.06256 0 0
107.39492 1.4985337 165.33823 76.06256 0 0
97.40469 1.998045 160.34311 76.06256 0 0
89.41251 1.998045 165.83774 76.06256 0 0
114.38808 227.77713 152.35092 94.072334 0 0
115.88661 228.27664 143.35973 94.072334 0 0
114.88759 231.27371 133.3695 94.072334 0 0
97.904205 240.76442 157.84555 94.072334 0 0
97.40469 242.76247 147.85533 94.072334 0 0
98.40372 243.76149 134.36853 94.072334 0 0
109.39296 231.77322 153.84946 94.072334 0 0
108.89345 233.27174 145.85728 94.072334 0 0
102.899315 237.76735 146.85631 94.072334 0 0
103.39883 236.26881 155.8475 94.072334 0 0
109.89247 234.27077 137.36559 94.072334 0 0
103.39883 239.26588 137.36559 94.072334 0 0
88.41349 252.25317 144.35875 94.072334 0 0
91.910065 247.75757 148.35484 94.072334 0 0
92.40958 246.25905 159.34409 94.072334 0 0
91.910065 250.75464 129.37341 94.072334 0 0
93.4086 247.75757 138.36461 94.072334 0 0
113.888565 160.34311 151.85141 92.922775 0 0
98.40372 161.34213 149.35387 92.922775 0 0
110.891495 163.34018 146.85631 92.922775 0 0
109.89247 169.83382 134.86804 92.922775 0 0
101.90029 167.33627 140.36266 92.922775 0 0
102.3998 172.33138 130.37244 92.922775 0 0
109.89247 171.33235 131.37146 74.913 0 0
111.89052 156.34702 157.34604 92.922775 0 0
105.39687 153.34995 159.34409 92.922775 0 0
103.39883 157.34604 154.84848 92.922775 0 0
80.42131 162.84067 146.3568 92.922775 0 0
90.41154 161.84164 148.35484 92.922775 0 0
93.4086 168.8348 138.36461 92.922775 0 0
89.912025 171.83186 132.37048 92.922775 0 0
88.41349 165.33823 143.35973 92.922775 0 0
82.41936 170.83284 133.3695 92.922775 0 0
72.42913 163.34018 143.35973 92.922775 0 0
78.42326 168.33528 137.8651 92.922775 0 0
63.93744 165.83774 136.86607 92.922775 0 0
66.435 170.33333 128.8739 92.922775 0 0
95.40665 154.84848 156.34702 92.922775 0 0
79.9218 153.34995 156.34702 92.922775 0 0
86.914955 154.84848 155.8475 92.922775 0 0
83.91789 158.84457 150.8524 92.922775 0 0
71.43011 150.8524 157.34604 92.922775 0 0
70.43108 157.34604 150.35289 92.922775 0 0
126.875854 7.99218 131.37146 90.048874 0 0
119.8827 6.493646 148.35484 76.06256 0 0
124.87781 8.491692 152.85043 76.06256 0 0
118.38416 3.4965787 149.85338 76.06256 0 0
114.38808 1.4985337 155.34799 76.06256 0 0
121.38123 4.495601 128.8739 76.06256 0 0
123.878784 6.493646 127.87488 76.06256 0 0
115.88661 3.99609 138.86412 76.06256 0 0
118.883675 7.4926686 137.8651 76.06256 0 0
114.38808 0.9990225 131.87097 76.06256 0 0
104.39785 1.998045 152.85043 76.06256 0 0
107.894424 1.4985337 143.35973 76.06256 0 0
105.896385 0.9990225 128.37439 76.06256 0 0
99.90225 2.4975562 131.87097 76.06256 0 0
94.40762 1.998045 150.8524 76.06256 0 0
85.91593 1.998045 147.35582 76.06256 0 0
85.91593 1.998045 156.34702 76.06256 0 0
94.40762 2.4975562 140.36266 76.06256 0 0
83.41838 1.998045 127.87488 76.06256 0 0
84.91691 1.998045 137.8651 76.06256 0 0
32.46823 145.85728 128.37439 87.941345 0 0
30.969696 137.36559 136.86607 87.941345 0 0
29.471163 129.37341 140.86217 87.941345 0 0
25.475073 131.87097 130.87195 87.941345 0 0
27.97263 134.86804 133.3695 87.941345 0 0
31.469208 125.87683 146.85631 87.941345 0 0
26.973606 126.875854 138.86412 87.941345 0 0
26.474096 117.88465 142.86021 87.941345 0 0
23.97654 115.3871 138.86412 87.941345 0 0
21.478983 117.38514 130.37244 87.941345 0 0
22.977516 123.878784 131.87097 87.941345 0 0
22.478006 107.894424 136.86607 87.941345 0 0
19.98045 104.39785 127.87488 87.941345 0 0
19.98045 95.40665 128.8739 87.941345 0 0
20.479961 90.41154 128.37439 17.051807 0 0
33.467255 149.35387 125.87683 127.98436 0 0
114.88759 0.0 117.88465 110.93255 0 0
121.880745 0.49951124 108.89345 110.93255 0 0
120.88172 0.9990225 106.89541 110.93255 0 0
119.38319 1.998045 97.904205 110.93255 0 0
117.38514 1.4985337 104.39785 110.93255 0 0
108.89345 0.9990225 117.38514 110.93255 0 0
111.39101 1.4985337 111.89052 110.93255 0 0
102.899315 1.4985337 117.38514 110.93255 0 0
111.39101 1.998045 108.393936 110.93255 0 0
106.89541 2.4975562 108.89345 110.93255 0 0
107.39492 1.998045 99.90225 110.93255 0 0
100.90127 1.998045 110.891495 110.93255 0 0
90.41154 1.998045 112.88954 110.93255 0 0
90.41154 1.998045 119.38319 110.93255 0 0
80.92082 1.998045 118.883675 110.93255 0 0
82.41936 1.4985337 97.40469 110.93255 0 0
87.91398 1.4985337 105.39687 110.93255 0 0
71.92962 1.998045 110.891495 110.93255 0 0
76.42522 1.4985337 104.89736 110.93255 0 0
122.38026 231.27371 115.3871 100.01173 0 0
123.878784 226.2786 125.37732 100.01173 0 0
98.90323 249.75562 105.39687 109.01662 0 0
98.40372 252.25317 97.904205 109.01662 0 0
89.41251 255.25024 118.38416 109.01662 0 0
94.907135 252.25317 110.891495 109.01662 0 0
92.40958 255.25024 103.89834 109.01662 0 0
121.38123 173.3304 121.38123 104.03519 0 0
63.93744 176.32747 108.89345 109.97458 0 0
72.92864 178.32552 110.891495 109.97458 0 0
70.930595 173.82991 122.38026 109.97458 0 0
63.93744 173.82991 117.38514 109.97458 0 0
62.438904 177.32649 98.90323 109.97458 0 0
56.944283 172.83089 112.39003 109.97458 0 0
55.445747 169.3343 121.880745 109.97458 0 0
48.45259 164.3392 123.37928 109.97458 0 0
48.952103 170.33333 107.39492 109.97458 0 0
54.946236 174.32942 101.90029 109.97458 0 0
39.9609 161.34213 115.88661 109.97458 0 0
44.4565 166.33725 112.88954 109.97458 0 0
47.453568 171.33235 98.40372 109.97458 0 0
39.461388 165.33823 101.40078 109.97458 0 0
35.465298 159.8436 108.393936 109.97458 0 0
41.958946 159.34409 123.878784 109.97458 0 0
33.966766 154.84848 116.88563 109.97458 0 0
34.466274 150.8524 125.87683 109.97458 0 0
29.970675 148.85435 118.38416 109.97458 0 0
29.970675 155.34799 100.90127 109.97458 0 0
28.971653 151.35191 108.89345 109.97458 0 0
24.476051 147.35582 97.904205 109.97458 0 0
78.922775 1.4985337 118.38416 100.969696 0 0
70.930595 1.998045 111.89052 100.969696 0 0
64.43695 3.99609 116.386116 100.969696 0 0
23.97654 68.93255 124.378296 99.053764 0 0
21.478983 77.92375 119.38319 99.053764 0 0
25.475073 64.93646 102.899315 99.053764 0 0
23.477028 69.43206 109.89247 99.053764 0 0
33.966766 47.95308 126.875854 99.053764 0 0
41.958946 32.46823 123.37928 99.053764 0 0
39.461388 35.96481 113.38905 99.053764 0 0
35.96481 42.957966 118.38416 99.053764 0 0
36.46432 41.958946 105.896385 99.053764 0 0
32.967743 47.453568 109.39296 99.053764 0 0
57.443794 8.991202 119.8827 100.969696 0 0
53.947212 13.486803 120.38221 100.969696 0 0
46.954056 24.975563 124.87781 100.969696 0 0
26.973606 61.439884 122.38026 99.053764 0 0
26.973606 59.94135 112.39003 99.053764 0 0
29.970675 53.447704 117.88465 99.053764 0 0
27.97263 59.94135 98.40372 99.053764 0 0
29.471163 54.946236 105.39687 99.053764 0 0
51.94917 174.82893 89.41251 109.97458 0 0
43.457478 171.33235 82.41936 109.97458 0 0
40.959923 168.33528 91.910065 109.97458 0 0
35.96481 164.83871 85.41642 109.97458 0 0
32.46823 159.8436 93.4086 109.97458 0 0
22.478006 144.35875 90.91105 109.97458 0 0
26.973606 152.85043 90.91105 109.97458 0 0
119.38319 1.998045 83.41838 110.93255 0 0
121.880745 1.998045 89.41251 110.93255 0 0
119.38319 1.4985337 73.927666 110.93255 0 0
110.39198 1.998045 89.41251 110.93255 0 0
105.39687 1.4985337 81.919846 110.93255 0 0
100.40176 1.998045 95.40665 110.93255 0 0
109.89247 0.9990225 66.93451 110.93255 0 0
96.40567 0.9990225 76.42522 110.93255 0 0
87.41447 0.9990225 86.41544 110.93255 0 0
93.90811 1.4985337 91.41056 110.93255 0 0
73.428154 1.4985337 92.90909 110.93255 0 0
32.46823 51.94917 91.910065 99.053764 0 0
113.888565 233.77126 126.37634 94.072334 0 0
114.88759 235.26979 115.3871 94.072334 0 0
117.88465 231.27371 122.38026 94.072334 0 0
103.89834 240.76442 126.37634 94.072334 0 0
103.89834 242.76247 117.38514 94.072334 0 0
109.39296 240.26491 111.89052 94.072334 0 0
96.90518 246.75856 125.37732 94.072334 0 0
98.40372 247.75757 115.88661 94.072334 0 0
101.90029 246.25905 107.894424 94.072334 0 0
108.89345 236.76833 126.875854 94.072334 0 0
88.41349 255.25024 122.38026 94.072334 0 0
93.4086 251.25415 120.88172 94.072334 0 0
94.907135 251.75366 111.89052 94.072334 0 0
114.88759 175.82796 114.38808 74.913 0 0
120.88172 176.82698 103.89834 74.913 0 0
118.883675 172.83089 123.878784 74.913 0 0
126.37634 175.32845 99.40274 74.913 0 0
103.39883 176.82698 116.88563 74.913 0 0
111.39101 179.32454 98.40372 74.913 0 0
111.39101 178.32552 107.39492 74.913 0 0
100.90127 178.82503 110.39198 74.913 0 0
102.899315 180.32356 103.39883 74.913 0 0
98.40372 181.8221 96.90518 74.913 0 0
108.89345 172.83089 126.875854 74.913 0 0
106.89541 174.82893 121.880745 74.913 0 0
85.41642 175.32845 124.87781 92.922775 0 0
73.927666 174.82893 121.880745 92.922775 0 0
77.92375 173.3304 127.37537 92.922775 0 0
87.91398 179.32454 111.89052 74.913 0 0
90.41154 176.82698 119.38319 74.913 0 0
82.41936 178.32552 115.88661 74.913 0 0
91.41056 182.82112 100.90127 74.913 0 0
90.41154 181.8221 106.89541 74.913 0 0
85.41642 183.82013 95.90616 74.913 0 0
83.91789 175.32845 123.37928 74.913 0 0
95.40665 173.82991 127.37537 74.913 0 0
73.428154 177.32649 112.88954 74.913 0 0
76.42522 179.32454 107.39492 74.913 0 0
79.42229 181.8221 101.40078 74.913 0 0
72.92864 175.32845 118.883675 74.913 0 0
26.474096 145.85728 112.88954 87.941345 0 0
30.470186 148.35484 120.38221 87.941345 0 0
28.472141 143.35973 123.878784 87.941345 0 0
24.476051 140.36266 114.38808 87.941345 0 0
23.97654 135.36755 122.38026 87.941345 0 0
20.479961 131.37146 112.88954 87.941345 0 0
21.978495 128.8739 123.37928 87.941345 0 0
19.480938 133.86902 101.40078 87.941345 0 0
22.478006 139.86314 107.39492 87.941345 0 0
124.87781 1.998045 121.38123 90.048874 0 0
124.87781 5.4946237 125.37732 90.048874 0 0
120.88172 0.49951124 111.89052 90.048874 0 0
119.8827 0.0 117.88465 76.06256 0 0
122.87977 2.4975562 124.87781 76.06256 0 0
100.40176 2.4975562 121.880745 76.06256 0 0
107.894424 0.9990225 119.8827 76.06256 0 0
90.91105 2.4975562 119.8827 76.06256 0 0
19.98045 122.87977 120.38221 87.941345 0 0
17.982405 114.88759 116.386116 87.941345 0 0
19.480938 112.88954 125.37732 87.941345 0 0
17.482893 120.38221 109.39296 87.941345 0 0
16.983383 125.87683 96.40567 87.941345 0 0
16.483871 115.3871 101.90029 87.941345 0 0
16.983383 106.89541 111.39101 87.941345 0 0
18.481916 101.40078 120.88172 87.941345 0 0
120.88172 176.82698 91.41056 74.913 0 0
112.39003 178.82503 88.913 74.913 0 0
101.90029 180.32356 86.41544 74.913 0 0
94.907135 182.82112 85.41642 74.913 0 0
21.978495 142.86021 93.4086 87.941345 0 0
115.3871 254.75073 69.93157 58.052784 0 0
96.40567 254.25122 94.40762 58.052784 0 0
103.39883 252.75269 85.41642 58.052784 0 0
109.89247 252.75269 77.92375 58.052784 0 0
82.41936 250.25513 66.435 58.052784 0 0
71.43011 254.75073 81.919846 58.052784 0 0
79.42229 254.75073 75.925705 58.052784 0 0
74.92669 245.26003 68.93255 58.052784 0 0
69.93157 248.75659 77.42424 58.052784 0 0
113.38905 178.32552 86.914955 50.96383 0 0
122.38026 175.82796 89.41251 50.96383 0 0
115.88661 176.32747 67.43402 50.96383 0 0
116.88563 176.82698 77.92375 50.96383 0 0
124.378296 173.82991 69.43206 50.96383 0 0
126.37634 173.82991 78.922775 50.96383 0 0
108.393936 178.82503 79.9218 50.96383 0 0
103.89834 179.82405 86.41544 50.96383 0 0
95.90616 182.82112 84.4174 50.96383 0 0
111.39101 177.826 71.43011 50.96383 0 0
104.39785 179.32454 72.92864 50.96383 0 0
100.40176 180.82307 77.92375 50.96383 0 0
101.40078 178.82503 63.93744 50.96383 0 0
94.40762 181.8221 73.428154 50.96383 0 0
22.478006 145.35777 88.913 53.071358 0 0
17.482893 143.85924 72.42913 53.071358 0 0
19.480938 142.3607 81.420334 53.071358 0 0
18.481916 134.36853 90.41154 53.071358 0 0
17.982405 135.36755 81.420334 53.071358 0 0
16.483871 132.87 73.428154 53.071358 0 0
16.483871 123.878784 80.42131 53.071358 0 0
15.98436 117.88465 95.40665 53.071358 0 0
16.483871 112.88954 84.91691 53.071358 0 0
17.482893 118.38416 66.93451 53.071358 0 0
17.982405 102.899315 79.9218 53.071358 0 0
17.482893 111.39101 73.927666 53.071358 0 0
19.98045 105.39687 67.93353 53.071358 0 0
19.98045 98.40372 74.92669 53.071358 0 0
25.475073 86.914955 63.93744 53.071358 0 0
22.478006 93.4086 69.93157 53.071358 0 0
82.91887 254.25122 58.442814 58.052784 0 0
77.92375 252.75269 48.952103 58.052784 0 0
78.922775 241.76344 60.44086 58.052784 0 0
78.42326 247.25807 54.446724 58.052784 0 0
119.8827 174.32942 61.939392 50.96383 0 0
124.378296 172.83089 59.94135 50.96383 0 0
125.87683 170.83284 54.446724 50.96383 0 0
126.37634 168.8348 48.952103 50.96383 0 0
112.88954 175.32845 56.944283 50.96383 0 0
118.883675 172.33138 51.449657 50.96383 0 0
102.3998 176.82698 55.445747 50.96383 0 0
108.393936 176.82698 62.938416 50.96383 0 0
109.39296 173.3304 47.95308 50.96383 0 0
98.40372 174.82893 46.954056 50.96383 0 0
119.8827 136.86607 9.490713 68.01564 0 0
125.87683 139.36363 12.987292 68.01564 0 0
127.37537 134.86804 10.489737 68.01564 0 0
121.880745 130.37244 6.9931574 68.01564 0 0
112.39003 129.37341 4.495601 68.01564 0 0
112.39003 133.86902 6.493646 68.01564 0 0
105.896385 140.36266 7.99218 68.01564 0 0
103.89834 127.87488 3.4965787 68.01564 0 0
97.40469 132.87 4.495601 68.01564 0 0
100.90127 137.36559 6.493646 68.01564 0 0
92.40958 180.82307 62.938416 50.96383 0 0
90.91105 177.826 54.946236 50.96383 0 0
88.41349 175.32845 47.95308 50.96383 0 0
16.483871 133.86902 49.951126 53.071358 0 0
18.981426 128.37439 44.956013 53.071358 0 0
15.484848 132.87 62.938416 53.071358 0 0
14.4858265 141.36168 52.44868 53.071358 0 0
122.87977 124.378296 4.495601 68.01564 0 0
113.888565 121.38123 2.4975562 68.01564 0 0
125.87683 99.40274 1.4985337 68.01564 0 0
122.87977 110.891495 1.4985337 68.01564 0 0
117.38514 101.40078 0.0 68.01564 0 0
105.896385 111.89052 0.49951124 68.01564 0 0
97.40469 122.87977 1.998045 68.01564 0 0
101.40078 97.904205 0.9990225 68.01564 0 0
122.87977 87.41447 1.998045 68.01564 0 0
111.89052 92.40958 0.9990225 68.01564 0 0
107.894424 82.41936 2.4975562 68.01564 0 0
90.41154 109.39296 1.998045 68.01564 0 0
85.91593 117.88465 1.998045 68.01564 0 0
65.435974 111.89052 7.4926686 63.99218 0 0
32.967743 108.393936 32.967743 63.99218 0 0
59.441837 116.386116 8.491692 63.99218 0 0
47.95308 125.37732 10.989247 63.99218 0 0
49.451614 116.386116 12.987292 63.99218 0 0
49.951126 106.89541 16.983383 63.99218 0 0
52.948193 98.40372 17.982405 63.99218 0 0
61.439884 99.90225 12.487782 63.99218 0 0
55.445747 110.39198 11.98827 63.99218 0 0
33.467255 120.38221 24.975563 63.99218 0 0
39.9609 122.87977 16.983383 63.99218 0 0
42.458454 102.3998 24.975563 63.99218 0 0
43.95699 111.39101 19.480938 63.99218 0 0
37.962852 110.39198 24.975563 63.99218 0 0
48.45259 73.428154 33.966766 63.99218 0 0
42.458454 86.914955 33.467255 63.99218 0 0
38.961876 95.40665 32.967743 63.99218 0 0
35.96481 91.41056 38.961876 63.99218 0 0
35.465298 84.4174 44.956013 63.99218 0 0
42.458454 77.92375 38.462364 63.99218 0 0
56.44477 87.41447 20.479961 63.99218 0 0
58.942326 93.4086 15.98436 63.99218 0 0
48.45259 81.919846 29.970675 63.99218 0 0
53.447704 77.42424 27.473118 63.99218 0 0
47.453568 90.41154 26.474096 63.99218 0 0
24.975563 119.38319 37.463345 63.99218 0 0
27.473118 98.40372 48.952103 63.99218 0 0
29.970675 104.89736 39.9609 63.99218 0 0
25.974585 109.89247 43.95699 63.99218 0 0
31.469208 95.90616 43.457478 63.99218 0 0
17.982405 123.878784 55.94526 53.071358 0 0
19.98045 120.88172 50.950146 53.071358 0 0
19.480938 113.888565 60.44086 53.071358 0 0
22.977516 112.39003 48.45259 53.071358 0 0
21.478983 121.880745 43.95699 53.071358 0 0
24.476051 117.38514 41.459435 53.071358 0 0
25.475073 104.39785 49.951126 53.071358 0 0
23.97654 98.90323 58.442814 53.071358 0 0
21.978495 101.40078 63.437927 53.071358 0 0
21.978495 108.89345 55.94526 53.071358 0 0
29.471163 118.38416 31.469208 63.99218 0 0
29.471163 87.91398 53.947212 63.99218 0 0
28.472141 91.910065 52.948193 53.071358 0 0
26.474096 93.90811 56.44477 53.071358 0 0
112.39003 237.76735 112.88954 14.944282 0 0
120.88172 230.7742 116.88563 14.944282 0 0
122.87977 232.27272 104.89736 14.944282 0 0
116.386116 237.76735 101.40078 14.944282 0 0
117.88465 234.27077 110.891495 14.944282 0 0
110.39198 241.76344 102.899315 14.944282 0 0
104.89736 244.261 107.894424 14.944282 0 0
98.90323 250.75464 100.90127 14.944282 0 0
72.42913 178.82503 105.39687 40.04301 0 0
76.92473 181.32259 100.40176 40.04301 0 0
67.93353 179.82405 98.90323 40.04301 0 0
62.938416 177.826 98.40372 40.04301 0 0
66.93451 2.4975562 101.90029 18.009775 0 0
71.43011 1.998045 110.891495 18.009775 0 0
15.98436 116.386116 97.904205 17.051807 0 0
16.983383 104.39785 112.88954 17.051807 0 0
16.483871 104.39785 98.40372 17.051807 0 0
17.482893 95.90616 101.40078 17.051807 0 0
19.98045 85.91593 122.38026 17.051807 0 0
18.481916 91.41056 113.888565 17.051807 0 0
20.479961 79.9218 107.894424 17.051807 0 0
18.981426 87.41447 101.90029 17.051807 0 0
20.979473 80.92082 96.40567 17.051807 0 0
20.979473 78.42326 117.38514 17.051807 0 0
23.477028 70.930595 103.39883 17.051807 0 0
25.974585 63.93744 100.40176 17.051807 0 0
41.459435 32.46823 116.88563 18.009775 0 0
41.459435 32.967743 96.90518 18.009775 0 0
36.963833 41.459435 97.904205 18.009775 0 0
39.461388 35.465298 106.3959 18.009775 0 0
48.45259 19.480938 113.38905 18.009775 0 0
49.451614 19.480938 121.880745 18.009775 0 0
48.45259 20.479961 98.40372 18.009775 0 0
62.938416 4.495601 112.88954 18.009775 0 0
55.94526 10.489737 117.88465 18.009775 0 0
60.44086 5.4946237 100.40176 18.009775 0 0
54.446724 11.488758 104.39785 18.009775 0 0
44.956013 27.473118 124.87781 18.009775 0 0
44.956013 25.475073 115.3871 18.009775 0 0
44.4565 26.973606 104.89736 18.009775 0 0
27.473118 61.939392 95.90616 17.051807 0 0
67.43402 242.76247 74.42718 42.91691 0 0
73.927666 242.76247 67.43402 42.91691 0 0
126.37634 242.26295 80.42131 14.944282 0 0
118.883675 242.76247 85.41642 14.944282 0 0
113.38905 248.25708 81.919846 14.944282 0 0
122.87977 248.25708 73.927666 14.944282 0 0
112.88954 252.75269 74.92669 14.944282 0 0
118.883675 253.75171 69.43206 14.944282 0 0
121.38123 238.26686 92.40958 14.944282 0 0
109.39296 244.76051 95.40665 14.944282 0 0
103.39883 251.25415 88.41349 14.944282 0 0
70.43108 244.261 73.428154 0.95796674 0 0
93.90811 182.82112 85.91593 40.04301 0 0
86.41544 183.82013 93.90811 40.04301 0 0
83.41838 184.81915 83.91789 40.04301 0 0
87.41447 182.32161 67.43402 40.04301 0 0
89.41251 183.82013 76.42522 40.04301 0 0
73.428154 182.82112 88.913 40.04301 0 0
64.43695 180.32356 89.912025 40.04301 0 0
77.92375 183.82013 77.42424 40.04301 0 0
76.92473 181.32259 68.43304 40.04301 0 0
63.93744 179.32454 73.428154 40.04301 0 0
70.43108 182.32161 77.42424 40.04301 0 0
69.93157 179.82405 65.435974 40.04301 0 0
109.89247 0.9990225 65.935486 39.085045 0 0
96.40567 0.9990225 74.92669 39.085045 0 0
113.888565 0.9990225 65.935486 28.930595 0 0
84.91691 0.9990225 83.41838 39.085045 0 0
85.91593 0.9990225 72.42913 39.085045 0 0
74.42718 1.4985337 80.92082 39.085045 0 0
71.43011 1.998045 90.41154 39.085045 0 0
65.935486 6.493646 68.93255 39.085045 0 0
71.43011 2.9970675 71.43011 39.085045 0 0
123.37928 1.4985337 80.92082 3.0654936 0 0
127.37537 1.4985337 72.92864 3.0654936 0 0
123.878784 0.9990225 64.43695 3.0654936 0 0
116.88563 0.9990225 68.93255 3.0654936 0 0
71.43011 1.998045 93.90811 18.009775 0 0
55.94526 239.7654 74.92669 42.91691 0 0
63.437927 229.77518 66.93451 42.91691 0 0
49.951126 230.27469 70.43108 42.91691 0 0
44.4565 239.7654 72.42913 42.91691 0 0
36.46432 233.27174 66.435 42.91691 0 0
45.955032 219.28543 65.435974 42.91691 0 0
55.445747 176.82698 89.41251 40.04301 0 0
57.943306 177.826 79.42229 40.04301 0 0
50.950146 176.32747 71.43011 40.04301 0 0
50.450634 175.32845 80.92082 40.04301 0 0
45.455524 172.83089 80.42131 40.04301 0 0
54.946236 24.975563 65.935486 39.085045 0 0
62.438904 10.489737 68.93255 39.085045 0 0
57.443794 15.484848 71.92962 39.085045 0 0
61.439884 6.9931574 78.922775 39.085045 0 0
34.466274 226.2786 64.93646 23.94917 0 0
41.958946 223.78104 67.43402 23.94917 0 0
56.44477 249.75562 78.922775 0.95796674 0 0
63.437927 246.75856 77.92375 0.95796674 0 0
56.44477 240.76442 75.925705 0.95796674 0 0
38.462364 242.26295 66.435 0.95796674 0 0
46.454544 246.25905 73.927666 0.95796674 0 0
41.958946 170.83284 81.919846 18.967741 0 0
45.955032 174.82893 67.93353 18.967741 0 0
34.466274 170.33333 72.42913 18.967741 0 0
30.969696 160.84262 81.919846 18.967741 0 0
24.476051 166.83676 66.93451 18.967741 0 0
26.474096 161.34213 74.42718 18.967741 0 0
23.97654 147.85533 88.913 18.967741 0 0
26.474096 154.34897 83.41838 18.967741 0 0
21.978495 152.85043 74.92669 18.967741 0 0
19.480938 157.84555 67.93353 18.967741 0 0
20.479961 145.35777 79.42229 18.967741 0 0
15.484848 143.35973 65.935486 18.967741 0 0
32.46823 64.43695 69.43206 5.939394 0 0
17.482893 103.89834 84.4174 17.051807 0 0
16.483871 111.39101 91.41056 17.051807 0 0
19.480938 98.90323 77.92375 17.051807 0 0
18.981426 92.40958 89.41251 17.051807 0 0
19.98045 86.41544 91.41056 17.051807 0 0
21.478983 86.41544 82.91887 17.051807 0 0
24.975563 85.41642 68.43304 17.051807 0 0
23.477028 90.91105 68.43304 17.051807 0 0
20.979473 95.40665 72.92864 17.051807 0 0
23.97654 74.92669 88.913 17.051807 0 0
26.973606 68.93255 84.4174 17.051807 0 0
25.475073 68.43304 92.90909 17.051807 0 0
26.973606 74.92669 74.42718 17.051807 0 0
24.975563 79.42229 76.92473 17.051807 0 0
27.97263 68.43304 78.922775 17.051807 0 0
28.971653 64.93646 81.420334 5.939394 0 0
28.971653 71.43011 71.43011 5.939394 0 0
47.95308 31.96872 72.92864 18.009775 0 0
33.467255 50.450634 94.40762 18.009775 0 0
36.963833 44.4565 87.41447 18.009775 0 0
40.959923 36.963833 87.41447 18.009775 0 0
42.957966 37.463345 77.92375 18.009775 0 0
32.46823 56.944283 80.92082 5.939394 0 0
35.96481 48.952103 82.91887 5.939394 0 0
35.465298 56.44477 71.92962 5.939394 0 0
41.459435 46.954056 67.93353 5.939394 0 0
40.959923 40.959923 78.922775 5.939394 0 0
46.454544 36.963833 69.43206 5.939394 0 0
50.450634 19.480938 88.913 18.009775 0 0
52.44868 18.981426 80.42131 18.009775 0 0
49.951126 25.475073 77.42424 18.009775 0 0
54.946236 22.977516 67.43402 18.009775 0 0
63.437927 4.495601 89.912025 18.009775 0 0
60.44086 7.4926686 80.42131 18.009775 0 0
54.446724 12.987292 91.41056 18.009775 0 0
56.944283 13.986315 75.4262 18.009775 0 0
44.956013 26.973606 94.907135 18.009775 0 0
46.454544 27.473118 85.41642 18.009775 0 0
52.948193 27.97263 65.935486 5.939394 0 0
30.470186 57.443794 90.41154 17.051807 0 0
28.971653 62.938416 86.914955 17.051807 0 0
30.969696 55.94526 90.91105 5.939394 0 0
73.927666 240.76442 47.95308 42.91691 0 0
79.42229 242.26295 58.442814 42.91691 0 0
74.42718 252.25317 44.956013 42.91691 0 0
64.93646 250.25513 37.962852 42.91691 0 0
68.93255 227.27762 53.447704 42.91691 0 0
70.930595 235.26979 62.438904 42.91691 0 0
67.93353 230.27469 43.95699 42.91691 0 0
67.93353 237.26784 38.462364 42.91691 0 0
64.43695 223.28152 39.9609 42.91691 0 0
64.93646 221.78299 48.45259 42.91691 0 0
127.37537 168.33528 48.45259 31.99609 0 0
125.87683 164.3392 37.962852 31.99609 0 0
117.38514 168.8348 41.958946 31.99609 0 0
111.89052 166.33725 33.467255 31.99609 0 0
108.393936 170.83284 40.959923 31.99609 0 0
108.393936 173.3304 46.954056 31.99609 0 0
100.40176 170.83284 38.462364 31.99609 0 0
111.39101 160.84262 25.974585 31.99609 0 0
96.40567 167.33627 31.469208 31.99609 0 0
100.90127 163.34018 25.974585 31.99609 0 0
121.38123 158.34506 26.973606 31.99609 0 0
126.37634 153.34995 24.476051 31.99609 0 0
116.386116 148.35484 15.98436 31.99609 0 0
115.88661 155.34799 21.978495 31.99609 0 0
114.88759 140.36266 9.990225 31.99609 0 0
123.878784 140.86217 12.987292 31.99609 0 0
106.89541 154.84848 18.481916 31.99609 0 0
96.40567 158.34506 19.98045 31.99609 0 0
102.3998 148.85435 12.987292 31.99609 0 0
97.904205 144.35875 9.490713 31.99609 0 0
95.90616 145.85728 10.489737 30.080156 0 0
98.90323 139.36363 6.9931574 30.080156 0 0
106.89541 141.86119 8.491692 31.99609 0 0
90.41154 180.32356 60.44086 40.04301 0 0
88.913 177.826 54.446724 40.04301 0 0
80.92082 176.32747 46.954056 40.04301 0 0
71.92962 176.82698 52.44868 40.04301 0 0
77.42424 178.82503 59.441837 40.04301 0 0
64.93646 178.32552 52.948193 40.04301 0 0
90.41154 171.83186 38.961876 31.99609 0 0
89.912025 174.82893 46.454544 31.99609 0 0
83.91789 169.3343 32.967743 31.99609 0 0
86.41544 161.34213 21.478983 31.99609 0 0
87.91398 165.33823 26.973606 31.99609 0 0
80.42131 160.84262 18.981426 30.080156 0 0
81.919846 163.83969 22.977516 30.080156 0 0
63.93744 164.83871 14.4858265 30.080156 0 0
69.93157 163.83969 17.982405 30.080156 0 0
85.41642 156.34702 15.98436 30.080156 0 0
87.41447 151.35191 12.487782 30.080156 0 0
92.40958 153.34995 14.4858265 31.99609 0 0
89.41251 142.86021 7.99218 30.080156 0 0
91.910065 132.87 4.495601 30.080156 0 0
81.420334 139.86314 5.994135 30.080156 0 0
80.92082 129.37341 3.99609 30.080156 0 0
76.42522 154.84848 12.487782 30.080156 0 0
79.42229 147.85533 9.490713 30.080156 0 0
66.435 159.34409 11.98827 30.080156 0 0
69.43206 148.85435 7.4926686 30.080156 0 0
69.93157 138.36461 4.9951124 30.080156 0 0
85.41642 175.32845 46.954056 13.986315 0 0
67.93353 177.32649 49.451614 13.986315 0 0
78.42326 175.82796 48.45259 13.986315 0 0
70.43108 173.82991 34.965786 13.986315 0 0
78.42326 172.83089 38.961876 13.986315 0 0
84.91691 167.33627 28.971653 13.986315 0 0
78.922775 163.83969 23.477028 13.986315 0 0
76.42522 169.3343 29.471163 13.986315 0 0
69.93157 166.33725 20.479961 13.986315 0 0
52.44868 255.25024 39.9609 42.91691 0 0
57.443794 244.76051 32.46823 42.91691 0 0
41.958946 245.75954 42.458454 42.91691 0 0
37.463345 243.26198 54.946236 42.91691 0 0
33.966766 237.76735 46.454544 42.91691 0 0
36.46432 235.7693 34.965786 42.91691 0 0
36.46432 235.26979 33.467255 35.061584 0 0
58.942326 219.78494 60.940372 42.91691 0 0
61.939392 213.79082 49.951126 42.91691 0 0
51.94917 209.29521 59.441837 42.91691 0 0
59.94135 210.29424 36.46432 42.91691 0 0
55.94526 204.7996 50.450634 42.91691 0 0
59.94135 210.79375 35.96481 35.061584 0 0
33.966766 235.26979 60.44086 23.94917 0 0
33.966766 235.26979 38.961876 23.94917 0 0
33.467255 236.76833 46.954056 23.94917 0 0
52.948193 255.25024 42.458454 0.95796674 0 0
39.9609 246.75856 55.94526 0.95796674 0 0
45.455524 254.25122 63.437927 0.95796674 0 0
45.455524 251.25415 46.954056 0.95796674 0 0
58.942326 208.29619 34.466274 13.986315 0 0
48.45259 210.79375 60.940372 23.94917 0 0
54.446724 198.30597 51.94917 23.94917 0 0
50.450634 203.30107 56.944283 23.94917 0 0
50.950146 197.80646 51.449657 13.986315 0 0
55.94526 197.30695 39.9609 13.986315 0 0
58.442814 205.29912 45.955032 13.986315 0 0
37.962852 215.28935 63.437927 23.94917 0 0
47.453568 192.31183 55.94526 23.94917 0 0
43.457478 200.80351 58.442814 23.94917 0 0
35.465298 206.29814 60.940372 23.94917 0 0
55.94526 177.826 61.439884 40.04301 0 0
47.95308 186.8172 57.943306 40.04301 0 0
48.45259 183.82013 59.441837 40.04301 0 0
49.951126 180.82307 56.944283 40.04301 0 0
54.946236 174.82893 55.445747 40.04301 0 0
51.94917 179.32454 56.944283 18.967741 0 0
57.943306 176.32747 53.447704 13.986315 0 0
56.944283 182.82112 49.451614 13.986315 0 0
48.45259 176.82698 52.948193 13.986315 0 0
47.95308 188.81525 56.44477 13.986315 0 0
59.441837 180.32356 32.46823 13.986315 0 0
61.939392 180.32356 43.95699 13.986315 0 0
55.445747 187.31671 43.95699 13.986315 0 0
48.45259 171.83186 52.44868 18.967741 0 0
47.453568 187.81622 57.443794 18.967741 0 0
40.959923 190.31378 58.942326 23.94917 0 0
42.458454 181.8221 62.938416 18.967741 0 0
38.961876 189.81427 59.441837 18.967741 0 0
33.966766 181.8221 62.438904 18.967741 0 0
47.453568 241.76344 30.969696 42.91691 0 0
56.944283 232.27272 25.475073 42.91691 0 0
56.44477 228.27664 25.974585 35.061584 0 0
44.4565 236.76833 27.473118 35.061584 0 0
43.457478 230.7742 22.478006 35.061584 0 0
36.46432 230.7742 26.973606 35.061584 0 0
59.94135 220.78397 29.970675 42.91691 0 0
57.943306 214.78984 27.473118 35.061584 0 0
54.446724 220.28445 22.478006 35.061584 0 0
49.451614 217.28738 17.982405 35.061584 0 0
53.947212 210.29424 20.479961 35.061584 0 0
54.946236 201.80254 23.477028 35.061584 0 0
49.951126 205.79863 15.98436 35.061584 0 0
52.44868 196.80743 17.982405 35.061584 0 0
38.961876 222.78201 17.982405 35.061584 0 0
44.4565 213.2913 13.486803 35.061584 0 0
35.96481 214.78984 12.987292 35.061584 0 0
46.954056 197.30695 11.98827 35.061584 0 0
41.958946 205.79863 9.990225 35.061584 0 0
33.966766 202.30205 7.4926686 35.061584 0 0
39.461388 195.3089 6.493646 35.061584 0 0
55.94526 194.30988 28.472141 13.986315 0 0
55.94526 202.30205 25.475073 13.986315 0 0
52.948193 195.80841 19.480938 13.986315 0 0
39.9609 175.82796 3.4965787 44.06647 0 0
35.465298 185.31866 3.99609 44.06647 0 0
41.958946 169.3343 2.9970675 44.06647 0 0
36.46432 164.83871 3.4965787 44.06647 0 0
35.465298 171.83186 2.9970675 44.06647 0 0
54.946236 165.83774 7.99218 30.080156 0 0
43.95699 183.82013 6.9931574 35.061584 0 0
34.965786 187.81622 3.99609 35.061584 0 0
42.957966 166.83676 3.4965787 30.080156 0 0
49.951126 156.34702 3.99609 30.080156 0 0
60.940372 153.34995 6.493646 30.080156 0 0
58.942326 142.3607 4.495601 30.080156 0 0
55.94526 132.37048 5.994135 30.080156 0 0
46.454544 128.8739 9.990225 30.080156 0 0
46.954056 145.35777 4.9951124 30.080156 0 0
55.445747 183.32063 18.481916 13.986315 0 0
49.951126 190.8133 13.486803 13.986315 0 0
47.95308 183.82013 9.490713 13.986315 0 0
62.438904 173.3304 21.978495 13.986315 0 0
55.94526 175.32845 13.986315 13.986315 0 0
57.943306 166.33725 10.489737 13.986315 0 0
41.459435 182.32161 4.495601 13.986315 0 0
45.955032 175.32845 5.4946237 13.986315 0 0
45.455524 166.83676 3.4965787 13.986315 0 0
37.962852 164.3392 2.9970675 4.0234604 0 0
41.958946 155.34799 3.99609 4.0234604 0 0
33.966766 152.35092 7.99218 4.0234604 0 0
38.462364 150.35289 5.994135 4.0234604 0 0
44.4565 139.86314 6.9931574 4.0234604 0 0
45.455524 131.87097 9.490713 4.0234604 0 0
39.9609 134.86804 11.488758 4.0234604 0 0
35.465298 139.86314 12.487782 4.0234604 0 0
39.461388 143.35973 7.99218 4.0234604 0 0
36.46432 131.37146 15.484848 4.0234604 0 0
29.471163 226.2786 31.469208 35.061584 0 0
18.981426 199.305 17.982405 44.06647 0 0
22.478006 196.80743 12.987292 44.06647 0 0
30.470186 222.78201 24.476051 35.061584 0 0
25.974585 211.79277 18.481916 35.061584 0 0
23.97654 215.28935 23.97654 35.061584 0 0
21.478983 215.78885 30.470186 35.061584 0 0
29.471163 207.79668 11.98827 35.061584 0 0
16.483871 204.3001 24.476051 35.061584 0 0
19.480938 200.304 18.481916 35.061584 0 0
23.97654 199.305 12.487782 35.061584 0 0
27.473118 193.31085 6.9931574 35.061584 0 0
28.472141 229.27567 52.948193 23.94917 0 0
27.97263 228.77615 40.46041 23.94917 0 0
30.969696 229.27567 33.467255 23.94917 0 0
24.476051 223.28152 48.45259 23.94917 0 0
29.471163 220.78397 60.940372 23.94917 0 0
